184.01734032910000000000	103.64323957930000000000	109.23521306210000000000
178.73522256760000000000	102.23685994440000000000	81.54132600190000000000
153.73097750800000000000	84.55148846380000000000	37.96853846740000000000
121.35272490630000000000	59.72348915980000000000	13.33434316280000000000
131.65824957490000000000	70.37282304890000000000	-2.42159962040000000000
140.03450973410000000000	73.01184765460000000000	18.42862845950000000000
138.45031920500000000000	78.65439199600000000000	6.35061177720000000000
172.08738739430000000000	106.68011839370000000000	62.46038189210000000000
195.18500535870000000000	115.34513264210000000000	107.47048936240000000000
177.45817083950000000000	107.83902357660000000000	72.41771381890000000000
168.43766152550000000000	95.24858190610000000000	63.00402486450000000000
181.60445835240000000000	103.69685313200000000000	116.45607284470000000000
122.16397492080000000000	58.46764753880000000000	0.06088321740000000000
175.57757001020000000000	101.36974501430000000000	113.59508660890000000000
130.12304731210000000000	72.34289482910000000000	-7.67187201870000000000
167.84332482750000000000	102.42105530820000000000	55.48727959140000000000
111.83970391570000000000	55.16952786750000000000	5.57235030330000000000
168.14695006340000000000	92.56458753670000000000	70.07786351510000000000
124.75575023680000000000	60.68589901140000000000	10.04908736350000000000
161.72665992040000000000	94.15080649890000000000	46.93166376270000000000
140.84474763780000000000	75.17398298820000000000	51.42288367030000000000
137.54814320470000000000	74.48033547250000000000	7.81053463930000000000
145.96865571230000000000	79.06043729060000000000	60.66370572510000000000
156.74904191950000000000	83.66344426200000000000	60.31685981630000000000
160.70861244810000000000	95.03809181340000000000	44.16377776900000000000
164.52639421950000000000	89.87354335890000000000	79.81365665660000000000
141.54973477000000000000	80.25275092590000000000	12.03606220410000000000
161.47470108410000000000	88.95117216260000000000	53.91015479150000000000
190.52356108330000000000	120.13490965580000000000	93.83563129680000000000
149.42211440070000000000	83.19513063170000000000	71.58560655690000000000
164.84725682180000000000	90.24011070630000000000	81.34771006170000000000
194.36746654460000000000	121.43408997900000000000	100.69995272960000000000
165.24312448840000000000	92.55231046270000000000	91.59642904760000000000
127.10124246060000000000	65.24358949050000000000	-7.50758703180000000000
131.85766285520000000000	77.76620487530000000000	-6.12343185870000000000
156.23472305910000000000	86.14059201640000000000	76.82803262160000000000
131.30877576620000000000	68.01688669210000000000	34.37227399430000000000
154.51137738410000000000	91.14795395510000000000	33.29877510620000000000
123.11127839560000000000	61.87620744200000000000	19.79169818310000000000
144.45288934980000000000	86.73042950760000000000	15.34422501840000000000
181.02510057030000000000	101.81276733800000000000	107.41388616350000000000
158.08958861270000000000	87.66835914180000000000	45.43862622960000000000
134.61461499970000000000	67.63657455370000000000	24.05818187450000000000
134.81825918140000000000	67.70185576590000000000	18.87724901760000000000
150.04559541920000000000	78.74818867340000000000	46.51644917680000000000
150.70465583830000000000	79.43444094690000000000	52.83092852040000000000
190.19866190380000000000	112.11065428830000000000	98.38862074300000000000
126.80415544090000000000	66.57863397110000000000	32.58645707800000000000
162.07147206080000000000	87.76956359170000000000	62.36097032890000000000
161.56123918750000000000	90.09774971130000000000	86.16829304450000000000
