-212.85181305320000000000	29.48360698320000000000	160.66163275020000000000
-106.25840824910000000000	51.48724176900000000000	116.86367486330000000000
-100.35439297050000000000	-16.59668833000000000000	155.75704502220000000000
-155.20127269170000000000	-44.75435961890000000000	130.54163179660000000000
-112.26591086570000000000	50.36768044370000000000	90.78963321130000000000
-159.09284392960000000000	-40.71740804020000000000	138.61076617900000000000
-164.49102048430000000000	-35.91215522600000000000	146.99332996490000000000
-119.87806232620000000000	-45.55964187940000000000	137.85562545980000000000
-183.25289828260000000000	-15.47362256680000000000	189.31120991760000000000
-122.11270805440000000000	-4.22992137280000000000	189.31840644060000000000
-102.89471472330000000000	36.22314342740000000000	164.46388211520000000000
-123.40219530300000000000	50.97848633020000000000	201.04031924450000000000
-95.51728476000000000000	-15.65911171700000000000	150.66464079550000000000
-110.84628615820000000000	-9.38524549570000000000	172.99406616630000000000
-169.21501455730000000000	-27.85022186070000000000	167.31188125750000000000
-144.27589619590000000000	63.89329646060000000000	120.31031508730000000000
-156.09216854240000000000	-19.84035658820000000000	190.80679750830000000000
-183.10315432390000000000	60.33801982670000000000	135.86578848420000000000
-100.71066229870000000000	46.18955697050000000000	133.77804328870000000000
-119.61358301350000000000	58.55787463110000000000	119.38817038260000000000
-131.19210789870000000000	8.79032027290000000000	209.54451557890000000000
-102.76912868490000000000	-17.20569996760000000000	158.01258078690000000000
-86.14519546040000000000	17.56952280190000000000	140.02192764280000000000
-120.44874852310000000000	32.35805201680000000000	203.27371617140000000000
-162.52606979980000000000	75.36535932450000000000	151.36515020070000000000
-92.25423928040000000000	-34.55683709100000000000	132.34700991190000000000
-174.81336532880000000000	-27.58464081840000000000	159.15648196450000000000
-188.63313070770000000000	-15.32770500870000000000	177.94039480350000000000
-164.41264742250000000000	34.85557853820000000000	82.05103458110000000000
-163.28197333470000000000	42.25249030660000000000	90.28181960470000000000
-141.62695760280000000000	-27.06080625460000000000	175.11486503830000000000
-189.59766293600000000000	57.15565440540000000000	138.85360632770000000000
-150.71958563140000000000	-11.60092090420000000000	202.90078684020000000000
-127.40941850990000000000	56.87574305140000000000	103.18839694520000000000
-156.36345782270000000000	80.14804696030000000000	167.43267243890000000000
-105.27158212050000000000	38.66124185160000000000	167.90081585810000000000
-110.43200374070000000000	33.30210988400000000000	183.80583247310000000000
-165.20065577330000000000	-42.24067732370000000000	85.14528936180000000000
-125.69430355050000000000	-46.54598438330000000000	137.80743689400000000000
-205.34567221410000000000	2.27757192580000000000	163.24871905980000000000
-196.77970962080000000000	33.99997752380000000000	128.76211892180000000000
-190.58728806440000000000	25.91365699150000000000	113.36412792790000000000
-187.66972126500000000000	73.59510571600000000000	160.29780911720000000000
-151.39338908410000000000	70.80875912880000000000	139.16608703550000000000
-170.92417071070000000000	-5.17122183160000000000	219.63720473110000000000
-100.49106604320000000000	24.52004383550000000000	166.95695331920000000000
-133.26419891410000000000	-4.19805462590000000000	200.14734064470000000000
-120.20626395820000000000	61.40749773860000000000	159.03209135080000000000
